# .PCD v0.7 - Point Cloud Data file format
VERSION 0.7
FIELDS x y z rgba
SIZE 4 4 4 4
TYPE F F F U
COUNT 1 1 1 1
WIDTH 1110
HEIGHT 1
VIEWPOINT 0 0 0 1 0 0 0
POINTS 1110
DATA ascii
0.56389672 0.38698635 1.1111488 4281145890
0.56624568 0.386989 1.1110399 4281211420
0.56859463 0.38699162 1.1109309 4281014807
0.57094347 0.38699427 1.110822 4280818454
0.57329243 0.38699692 1.110713 4280687638
0.57564127 0.38699958 1.1106042 4280556820
0.57988518 0.38830015 1.1145175 4280884499
0.58033919 0.38700488 1.1103863 4281277716
0.58268803 0.38700753 1.1102773 4280950038
-1.5704194 0.91150832 2.8986433 4284305233
-1.5781525 0.91929269 2.9238658 4284501066
-1.572583 0.91929901 2.9236076 4284042308
-1.5670135 0.91930526 2.9233491 4283583563
-1.5744513 0.92702532 2.9483523 4284109138
-1.5688356 0.92703164 2.948092 4284633685
-1.5632198 0.92703795 2.9478314 4284502617
-1.1196749 0.6669569 2.0958669 4284306265
-1.1295683 0.67538273 2.1232443 4284175447
-1.1392546 0.68374449 2.1504066 4284175446
-1.1351006 0.68374914 2.150214 4284175698
-1.1309464 0.68375385 2.1500213 4284110159
-1.1267924 0.6837585 2.1498287 4284110927
-1.1158438 0.67958456 2.1359644 4283186511
-1.1117148 0.67958921 2.1357727 4282263853
-1.1075858 0.67959386 2.1355813 4280815116
-1.103457 0.67959851 2.1353898 4279438344
-1.1060221 0.68378192 2.1488652 4279109636
-1.1018683 0.68378663 2.1486726 4278846985
-1.1044602 0.68803447 2.1623549 4278781710
-1.1002806 0.68803918 2.1621611 4278781970
-1.0961013 0.68804389 2.1619673 4278847510
-1.0919217 0.6880486 2.1617734 4278979345
-1.0877421 0.68805331 2.1615796 4278979340
-1.0976022 0.69705874 2.1908047 4279045136
-1.0933686 0.69706351 2.1906083 4279110164
-1.0957028 0.70131165 2.2042787 4279175706
-1.0914439 0.70131648 2.2040811 4279306785
-1.0940964 0.70582175 2.2185881 4279437853
-1.0971867 0.71064866 2.2341428 4279372314
-1.1071746 0.72004044 2.2646067 4279306778
-1.1028032 0.72004539 2.2644041 4279306778
-1.0984317 0.72005033 2.2642012 4279241242
-1.1009338 0.72462022 2.2789068 4279240986
-1.0965348 0.72462523 2.278703 4279175448
-1.0853173 0.72006512 2.263593 4279437591
-1.0809458 0.72007 2.2633903 4279633431
-1.0833381 0.72464007 2.2780907 4279240727
-1.0789393 0.72464508 2.2778869 4278848276
-1.0745404 0.72465003 2.2776828 4278913810
-1.0701414 0.72465497 2.2774787 4279044884
-1.080269 0.73462623 2.3097985 4279109655
-1.0829033 0.73951799 2.3255374 4279109652
-1.0784152 0.73952305 2.3253293 4279044369
-1.0739272 0.73952812 2.3251212 4279044627
-1.076352 0.74435574 2.3406451 4278978581
-1.0718349 0.7443608 2.3404357 4278978322
-1.0673178 0.74436593 2.3402262 4279043856
-1.0628008 0.744371 2.3400166 4279109391
-1.0805783 0.76019454 2.3913906 4279305743
-1.0759662 0.76019979 2.3911767 4279502095
-1.0713543 0.76020497 2.3909628 4279239952
-1.0667421 0.76021016 2.3907487 4279043599
-1.0621301 0.76021534 2.3905349 4279109135
-1.0647024 0.76542914 2.4072983 4279174927
-1.0675656 0.77090043 2.4248977 4279109135
-1.0628895 0.77090573 2.4246807 4278978066
-1.0657414 0.77644134 2.4424846 4278978069
-1.0610322 0.77644664 2.4422662 4278912530
-1.0563227 0.77645195 2.4420478 4278847247
-1.0589556 0.78192329 2.4596362 4278781711
-1.0542134 0.78192866 2.4594162 4278912783
-1.0494713 0.78193402 2.4591963 4279043858
-1.044729 0.78193939 2.4589763 4279174677
-1.0399866 0.78194469 2.4587564 4279371282
-1.0425072 0.78748071 2.4765449 4279764240
-1.0377316 0.78748608 2.4763234 4280157209
-1.0329562 0.78749144 2.4761019 4280946467
-1.035677 0.79328477 2.4947217 4281735210
-1.0308666 0.7932902 2.4944987 4282328625
-1.0260565 0.79329562 2.4942756 4282921278
-1.0212462 0.79330105 2.4940524 4283383884
-1.016436 0.79330647 2.4938293 4283779661
-1.0116258 0.79331189 2.4936063 4284174415
-1.0068156 0.79331732 2.4933832 4284634706
-1.2000892 0.951406 3.0074296 4284503126
-1.1943297 0.9514125 3.0071626 4284437592
-1.1885701 0.951419 3.0068953 4284633946
-1.1728027 0.94332182 2.980273 4284764763
-1.167092 0.94332826 2.9800081 4284699740
-1.1613809 0.9433347 2.9797432 4284699995
-1.1556702 0.94334114 2.9794784 4284831066
-1.1499592 0.94334757 2.9792135 4285027929
-1.1442484 0.94335401 2.9789486 4284896601
-1.1385375 0.94336045 2.9786839 4284831576
-1.1328267 0.94336689 2.9784191 4284897368
-1.1271158 0.94337332 2.9781542 4284963163
-1.121405 0.94337976 2.9778893 4285028702
-1.1156942 0.9433862 2.9776244 4285160032
-1.1099833 0.94339263 2.9773595 4285160290
-1.1042725 0.94339907 2.9770947 4285160802
-1.0985616 0.94340557 2.9768298 4285161059
-1.0928507 0.94341201 2.9765649 4285226851
-1.08714 0.94341844 2.9763 4285292131
-1.0814291 0.94342488 2.9760351 4285357919
-1.0666103 0.93539095 2.949662 4285488988
-1.0609477 0.93539733 2.9493995 4285620064
-1.0552851 0.9354037 2.9491367 4285554020
-1.0409462 0.92762691 2.9236081 4285488224
-1.0353304 0.92763323 2.9233477 4285752156
-1.0297147 0.9276396 2.9230871 4286015839
-0.9012273 0.82937425 2.6031468 4278781711
-0.89620161 0.82937992 2.6029136 4279044630
-0.89117593 0.82938558 2.6026804 4279373334
-0.88615018 0.82939124 2.6024475 4279373078
-0.8811245 0.8293969 2.6022143 4279438618
-0.87609881 0.82940257 2.6019812 4279503902
-0.86470139 0.8232969 2.5819316 4279635745
-1.010218 0.96849418 3.0524604 4279307044
-0.97863376 0.94354075 2.9712675 4278978335
-0.97292298 0.94354719 2.9710026 4281276698
-0.96721208 0.94355363 2.9707377 4283577152
-0.95335889 0.93551868 2.9444094 4284702823
-0.94769621 0.93552506 2.9441469 4285882975
-0.94203365 0.93553144 2.9438841 4285554520
-0.93637109 0.93553782 2.9436216 4285292635
-0.93070853 0.93554419 2.9433589 4285292639
-0.92504597 0.93555057 2.9430962 4285292640
-0.91938335 0.93555695 2.9428337 4285423714
-0.91372079 0.93556333 2.9425709 4285554791
-0.90805823 0.93556976 2.9423084 4285620332
-0.90239567 0.93557614 2.9420457 4285751401
-0.89673311 0.93558252 2.9417832 4285752167
-0.89107049 0.9355889 2.9415205 4285752168
-0.88540804 0.93559527 2.9412577 4285883497
-0.87974536 0.93560165 2.9409952 4286014826
-0.8740828 0.93560803 2.9407325 4286080107
-0.86842012 0.93561441 2.94047 4286145639
-0.86275774 0.93562084 2.9402072 4286080100
-0.85709506 0.93562722 2.9399447 4286080361
-0.8514325 0.9356336 2.939682 4286080367
-0.84576994 0.93563998 2.9394195 4286080116
-0.84010732 0.93564636 2.9391568 4286145914
-0.83444476 0.93565273 2.938894 4286211948
-0.8287822 0.93565911 2.9386315 4286146654
-0.82311964 0.93566549 2.9383688 4286147173
-0.81745708 0.93567193 2.9381063 4286081644
-0.81179446 0.9356783 2.9378436 4286016117
-0.8061319 0.93568468 2.9375811 4286147455
-0.80046934 0.93569106 2.9373183 4286212982
-0.79480678 0.93569744 2.9370556 4286344046
-0.78914416 0.93570381 2.9367931 4286475118
-0.7834816 0.93571019 2.9365304 4286409583
-0.77781898 0.93571663 2.9362679 4286344558
-0.76577008 0.92793721 2.9108453 4286279021
-0.76015419 0.92794353 2.9105849 4286279283
-0.75453836 0.92794991 2.9103243 4286345082
-0.75516874 0.93574214 2.9352174 4286410862
-0.74950618 0.93574852 2.9349546 4286541155
-0.73769081 0.92796886 2.909543 4286737769
-0.73207498 0.92797524 2.9092824 4286475887
-0.73251843 0.93576771 2.9341667 4286279799
-0.72685593 0.93577409 2.9339042 4286345344
-0.71522748 0.92799419 2.9085011 4286476408
-0.70961159 0.92800057 2.9082406 4286476401
-0.70399576 0.92800689 2.9079802 4286477162
-0.69837993 0.92801321 2.9077196 4286476900
-0.6927641 0.92801952 2.9074593 4286542441
-0.68714827 0.92802584 2.9071987 4286542447
-0.68153238 0.92803222 2.9069383 4286607990
-0.67591655 0.92803854 2.906678 4286673277
-0.67589277 0.93583155 2.9315405 4286804344
-0.67023015 0.93583792 2.9312778 4286673267
-0.65906906 0.92805755 2.9058964 4286607988
-0.65890497 0.93585068 2.9307525 4286607733
-0.65324241 0.93585706 2.9304898 4286607740
-0.64757985 0.93586344 2.9302273 4286673027
-0.64191729 0.93586987 2.9299645 4286738301
-0.63625467 0.93587625 2.929702 4286672759
-0.62537396 0.92809552 2.9043336 4286673011
-0.62492955 0.93588901 2.9291768 4286541936
-0.6141423 0.92810822 2.9038126 4286477428
-0.60852647 0.92811453 2.9035523 4286674041
-0.60291064 0.92812085 2.9032917 4286804856
-0.60227925 0.93591452 2.9281261 4286804343
-0.59661669 0.93592095 2.9278636 4286869614
-0.59095412 0.93592733 2.9276009 4286738534
-0.58529156 0.93593371 2.9273384 4286673263
-0.58458513 0.9439851 2.9529912 4286607992
-0.57396638 0.93594646 2.9268131 4286608251
-0.56830382 0.93595284 2.9265504 4286673534
-0.5626412 0.93595922 2.9262877 4286804593
-0.5569787 0.93596566 2.9260252 4286608229
-0.54675215 0.92818421 2.9006872 4286412147
-0.54113638 0.92819053 2.9004266 4286477185
-0.53552049 0.92819685 2.9001663 4286542460
-0.5299046 0.92820317 2.8999057 4286607736
-0.52428883 0.92820954 2.8996453 4286673272
-0.51867294 0.92821586 2.8993847 4286673272
-0.51305711 0.92822218 2.8991244 4286738808
-0.50744128 0.9282285 2.8988638 4286804089
-0.50182545 0.92823488 2.8986034 4286868851
-0.49620965 0.92824119 2.8983428 4286803822
-0.49059379 0.92824751 2.8980825 4286737521
-0.4849779 0.92825383 2.8978219 4286803828
-0.47539204 0.92053622 2.8727193 4286935154
-0.46982256 0.92054248 2.8724611 4286804080
-0.46425301 0.9205488 2.8722026 4286739056
-0.45868358 0.92055506 2.8719444 4286542448
-0.45689869 0.92828548 2.8965197 4286411632
-0.45128289 0.92829186 2.8962593 4286411377
-0.44566706 0.92829818 2.8959987 4286411373
-0.4400512 0.92830449 2.8957384 4286345066
-0.43443534 0.92831081 2.8954778 4286344298
-0.42881951 0.92831719 2.8952174 4286147178
-0.41969705 0.92059904 2.870136 4285950831
-0.41758779 0.92832983 2.8946965 4286082420
-0.40855801 0.92061156 2.8696196 4286214002
-0.40298858 0.92061788 2.8693612 4286213488
-0.3974191 0.92062414 2.869103 4286278766
-0.39184955 0.9206304 2.8688445 4286344044
-0.38628006 0.92063671 2.8685863 4286409581
-0.38071057 0.92064297 2.8683279 4286344046
-0.37514108 0.92064923 2.8680696 4286278508
-0.36957154 0.92065555 2.8678112 4286212971
-0.36400211 0.92066181 2.867553 4286147436
-0.36142939 0.92839319 2.8920918 4285950061
-0.35286307 0.92067438 2.8670363 4285818984
-0.3501977 0.92840582 2.8915708 4286081636
-0.34458187 0.92841214 2.8913105 4286409819
-0.3418009 0.93620825 2.916045 4286081619
-0.34192196 0.95237368 2.9676275 4285753939
-0.33913043 0.96081394 2.9944165 4284960083
-0.33924422 0.97794533 3.0490808 4284106827
-0.33333135 0.977952 3.0488067 4283844675
-0.34255287 1.0232825 3.1938958 4283581505
-0.34601605 1.0527116 3.2879632 4283778880
-0.33965483 1.0527188 3.287668 4283976249
-0.33984274 1.0734569 3.353843 4283912499
-0.33335721 1.0734642 3.3535421 4283847475
-0.3268716 1.0734714 3.3532412 4283183668
-0.32038602 1.0734788 3.3529406 4282527524
-0.31692633 1.0838518 3.3858633 4282789909
-0.31037858 1.0838592 3.3855596 4282987800
-0.3038308 1.0838666 3.3852558 4283249948
-0.29728302 1.083874 3.3849521 4283447070
-0.17425653 0.66415864 2.0396886 4283248416
-0.16913898 0.65991378 2.0258894 4283314463
-0.1651344 0.65991831 2.0257037 4283380513
-0.16112982 0.65992278 2.0255179 4283511587
-0.15620613 0.65606403 2.0129604 4283643430
-0.15222472 0.6560685 2.0127759 4283775018
-0.14824331 0.65607303 2.0125911 4283972142
-0.14341231 0.65221417 2.0000379 4284102450
-0.13945405 0.65221864 1.9998543 4284299316
-0.13549581 0.65222311 1.9996707 4284496950
-0.13153759 0.65222758 1.9994872 4284694331
-0.12757933 0.65223205 1.9993036 4284957249
-0.12362109 0.65223652 1.99912 4285220674
-0.11966285 0.65224099 1.9989364 4285484100
-0.11570462 0.6522454 1.9987528 4285747268
-0.11174638 0.65224987 1.9985693 4286010437
-0.10778813 0.65225434 1.9983857 4286339143
-0.10320175 0.64833087 1.9856385 4286601290
-0.099267058 0.64833534 1.985456 4286863946
-0.095913418 0.65226775 1.9978349 4287127371
-0.091955185 0.65227222 1.9976513 4287325006
-0.087996922 0.65227669 1.9974678 4287389778
-0.084038697 0.65228111 1.9972842 4287520850
-0.080080464 0.65228558 1.9971006 4287455059
-0.076122209 0.65229005 1.996917 4287389521
-0.072596453 0.65615833 2.0090826 4287192911
-0.068615049 0.6561628 2.008898 4286996562
-0.06463363 0.65616727 2.0087132 4286799189
-0.060652222 0.6561718 2.0085287 4286602073
-0.060368847 0.69822836 2.1426973 4286274910
-0.05613523 0.69823313 2.1425009 4286013026
-0.051901624 0.6982379 2.1423044 4285750118
-0.047965337 0.70249313 2.155684 4285487718
-0.043706235 0.7024979 2.1554866 4285028967
-0.039447132 0.70250273 2.1552889 4284635750
-0.03518803 0.70250756 2.1550915 4284504933
-0.030928941 0.70251232 2.1548939 4284440426
-0.026669852 0.70251715 2.1546962 4284375152
-0.02241075 0.70252192 2.1544988 4284245104
-0.018032787 0.6982761 2.1407337 4284112497
-0.013700137 0.69377267 2.1261489 4283981423
-0.0094215581 0.68926924 2.1115665 4284112494
-0.0052420236 0.68927395 2.1113727 4284309877
-0.0010455772 0.68502796 2.097616 4284441725
0.0031084737 0.68503261 2.0974233 4284574593
0.0072625172 0.68503731 2.0972307 4284769926
0.011416568 0.68504202 2.097038 4285031306
0.015570612 0.68504667 2.0968454 4285230734
0.030902402 0.38693473 1.1449436 4284769379
0.033139929 0.38532713 1.1397027 4283451984
0.035496566 0.38532981 1.1395934 4282202678
0.037853204 0.38533247 1.139484 4281673756
0.040083658 0.38404688 1.135271 4281211932
0.042432569 0.38404953 1.1351621 4280226076
0.044781484 0.38405219 1.1350532 4279241493
0.047130398 0.38405484 1.1349442 4279307278
0.049479313 0.38405749 1.1348352 4279372816
0.051828224 0.38406014 1.1347263 4279306515
0.053995982 0.38271007 1.1303105 4279306511
0.056526054 0.38406542 1.1345084 4279372300
0.058677591 0.38271534 1.1300935 4279437839
0.061018392 0.382718 1.1299849 4279307027
0.063359194 0.38272065 1.1298763 4279176211
0.065488845 0.38143492 1.1256678 4279176211
0.067821927 0.38143757 1.1255596 4279175439
0.070155002 0.38144019 1.1254513 4279175435
0.072488084 0.38144282 1.1253431 4279240722
0.075063214 0.38273382 1.1293335 4279240730
0.077404015 0.38273647 1.1292249 4279240982
0.079744823 0.38273913 1.1291163 4279175442
0.082364105 0.38409457 1.13331 4279175441
0.084713019 0.38409722 1.1332011 4279240977
0.087061934 0.38409987 1.1330922 4279306256
0.089410849 0.38410252 1.1329832 4279109647
0.091152713 0.38146386 1.1244775 4278978570
0.093485795 0.38146651 1.1243693 4278978821
0.095818877 0.38146913 1.124261 4278913800
0.098151952 0.38147175 1.1241528 4278913803
0.10007627 0.3798638 1.1189264 4278848267
0.10239969 0.37986642 1.1188186 4278848011
0.10515119 0.38147965 1.1238282 4278848010
0.10704654 0.37987167 1.1186031 4278913290
0.10936996 0.37987429 1.1184955 4278978826
0.11169338 0.37987691 1.1183877 4278913546
0.11401681 0.37987953 1.1182799 4278848009
0.11634023 0.37988216 1.1181722 4278847497
0.11866365 0.37988478 1.1180644 4278912779
0.12098708 0.37988737 1.1179566 4278913038
0.12331051 0.37988999 1.1178489 4278913295
0.12563393 0.37989262 1.1177411 4278847761
0.12795736 0.37989524 1.1176333 4278782221
0.13028078 0.37989786 1.1175256 4278847498
0.1326042 0.37990049 1.1174178 4278913034
0.13492763 0.37990311 1.11731 4278912778
0.1378143 0.38151649 1.1223133 4278912524
0.13957447 0.37990835 1.1170945 4278912526
0.1418979 0.37991098 1.1169868 4278912779
0.14422132 0.3799136 1.116879 4278716169
0.14654474 0.37991622 1.1167712 4278585609
0.14886817 0.37991881 1.1166635 4278781449
0.15119159 0.37992144 1.1165557 4278978057
0.15301035 0.37863544 1.1123617 4278847241
0.15532605 0.37863806 1.1122543 4278716430
0.15764175 0.37864065 1.1121469 4278716180
0.15995745 0.37864327 1.1120394 4278716174
0.16227315 0.3786459 1.111932 4278716168
0.16404556 0.37735975 1.1077402 4278716170
0.16635352 0.37736234 1.1076331 4278781453
0.1686615 0.37736496 1.1075261 4278847245
0.17096947 0.37736756 1.107419 4278912526
0.17385165 0.37865895 1.1113951 4278977805
0.17558543 0.37737277 1.1072049 4278846732
0.17789342 0.37737536 1.1070979 4278781455
0.18020138 0.37737796 1.1069908 4278715666
0.18250936 0.37738058 1.1068838 4278650124
0.18481733 0.37738317 1.1067767 4278715654
0.18774587 0.3786746 1.1107507 4278847237
0.19006155 0.37867722 1.1106433 4278716164
0.19237725 0.37867984 1.1105359 4278650886
0.19404924 0.37739357 1.1063485 4278715912
0.19635721 0.3773962 1.1062415 4278781706
0.1986652 0.37739879 1.1061344 4278715916
0.20097317 0.37740138 1.1060274 4278650378
0.20328115 0.377404 1.1059203 4278650632
0.20558912 0.3774066 1.1058133 4278650885
0.2078971 0.37740919 1.1057062 4278585091
0.21020508 0.37741181 1.1055992 4278520069
0.21251304 0.37741441 1.1054921 4278519559
0.21482103 0.377417 1.1053851 4278519558
0.21640807 0.37613073 1.1012019 4278519046
0.21943696 0.37742221 1.1051711 4278584325
0.22174494 0.37742481 1.105064 4278519045
0.22405291 0.3774274 1.104957 4278519556
0.2263609 0.37743002 1.1048499 4278585091
0.22866887 0.37743261 1.1047429 4278585091
0.23174416 0.37872422 1.1087099 4278519043
0.23405986 0.37872684 1.1086025 4278453508
0.23637554 0.37872943 1.1084952 4278519045
0.23790078 0.37744302 1.1043147 4278650120
0.23941056 0.37615669 1.100135 4278715147
0.24171081 0.37615928 1.1000283 4278846471
0.24401107 0.37616187 1.0999216 4278715140
0.24631132 0.37616447 1.0998149 4278649860
0.24861157 0.37616706 1.0997082 4278518788
0.25091183 0.37616965 1.0996015 4278387716
0.25321209 0.37617224 1.0994948 4278518788
0.25551233 0.37617484 1.0993882 4278649860
0.25781259 0.37617743 1.0992815 4278584068
0.26011282 0.37618002 1.0991749 4278584068
0.26241308 0.37618262 1.0990682 4278584068
0.26471335 0.37618521 1.0989615 4278518536
0.26701358 0.3761878 1.0988548 4278518540
0.26931384 0.37619039 1.0987481 4278519304
0.2716141 0.37619299 1.0986414 4278519045
0.27391434 0.37619558 1.0985347 4278453509
0.2762146 0.37619817 1.098428 4278453253
0.27851486 0.37620077 1.0983213 4278453252
0.28175232 0.37749249 1.1022809 4278453251
0.28311536 0.37620595 1.0981079 4278519298
0.28541562 0.37620854 1.0980012 4278781185
0.28771585 0.37621114 1.0978945 4278977794
0.29001611 0.37621373 1.0977879 4279108867
0.29231638 0.37621632 1.0976812 4279240197
0.29461661 0.37621891 1.0975745 4279305736
0.29691687 0.37622151 1.0974678 4279305992
0.2992171 0.3762241 1.0973611 4279305993
0.30151737 0.37622669 1.0972544 4279305993
0.30381763 0.37622932 1.0971477 4279305993
0.30611786 0.37623191 1.0970411 4279305991
0.30841812 0.3762345 1.0969344 4279437317
0.30968073 0.37494779 1.092766 4279568647
0.31301862 0.37623969 1.0967211 4279633417
0.31531885 0.37624228 1.0966144 4279698189
0.3165583 0.37495553 1.092447 4279699474
0.31885082 0.37495813 1.0923407 4279700494
0.32114336 0.37496069 1.0922344 4279635210
0.32343587 0.37496328 1.092128 4279636234
0.32572839 0.37496588 1.0920217 4279767307
0.32802096 0.37496847 1.0919154 4279898380
0.33142063 0.37626043 1.0958675 4279897102
0.33372089 0.37626302 1.0957608 4279895820
0.33602113 0.37626562 1.0956541 4279962891
0.3394517 0.37755755 1.0996047 4280030220
0.34062162 0.3762708 1.0954407 4280095758
0.34292188 0.37627339 1.0953341 4280161548
0.34522212 0.37627599 1.0952274 4280096010
0.34868357 0.37756795 1.0991765 4280096014
0.34982264 0.37628117 1.095014 4280161811
0.3521229 0.37628376 1.0949073 4280293652
0.3532387 0.3749969 1.0907458 4280228117
0.35553128 0.37499949 1.0906395 4280162835
0.35902363 0.37629154 1.0945873 4280228625
0.36132392 0.37629414 1.0944806 4280361237
0.36362416 0.37629673 1.0943739 4280294681
0.36592442 0.37629932 1.0942672 4280229146
0.36822465 0.37630194 1.0941606 4280426011
0.37052491 0.37630454 1.0940539 4280557854
0.37407133 0.37759659 1.097999 4280623394
0.37637931 0.37759918 1.0978919 4280689179
0.37868729 0.37760177 1.0977849 4280754196
0.38099524 0.3776044 1.0976778 4280819736
0.38330325 0.37760699 1.0975708 4280819740
0.38689604 0.37889919 1.101514 4280885788
0.38791919 0.3776122 1.0973567 4280819485
0.39022717 0.3776148 1.0972497 4280819225
0.39384314 0.37890702 1.1011918 4280687125
0.39615881 0.37890962 1.1010844 4280489745
0.39847454 0.37891224 1.1009769 4280292365
0.40079024 0.37891483 1.1008695 4280095755
0.40310597 0.37891746 1.1007621 4279899145
0.40542161 0.37892008 1.1006547 4279702537
0.40909165 0.38021228 1.1045941 4279833353
0.41141507 0.38021487 1.1044865 4279964427
0.41236874 0.37892792 1.1003325 4279964429
0.41606191 0.38022012 1.1042709 4279964430
0.41700011 0.37893313 1.1001177 4280095247
0.41931581 0.37893572 1.1000103 4280226319
0.42163154 0.37893835 1.0999029 4280161039
0.42394724 0.37894097 1.0997955 4280161555
0.42626294 0.37894356 1.0996881 4280227095
0.42857862 0.37894619 1.0995806 4280227352
0.43089435 0.37894881 1.0994734 4280161562
0.43321005 0.3789514 1.0993659 4280161559
0.43552575 0.37895402 1.0992585 4280227349
0.43784145 0.37895662 1.0991511 4280294421
0.44015712 0.37895924 1.0990437 4280293653
0.44394302 0.38025156 1.1029778 4280359186
0.44626644 0.38025418 1.10287 4280294160
0.44710425 0.37896708 1.0987215 4280294931
0.44941995 0.37896967 1.0986141 4280425494
0.4532367 0.38026205 1.1025467 4280622102
0.45556015 0.38026467 1.1024389 4280622103
0.45788354 0.38026729 1.1023312 4280687896
0.46020696 0.38026991 1.1022234 4280622361
0.46444538 0.38188481 1.1071639 4280491801
0.46677846 0.38188744 1.1070558 4280622105
0.46911153 0.38189006 1.1069475 4280752930
0.47144464 0.38189271 1.1068393 4280687660
0.47182411 0.380283 1.1016846 4280689184
0.47414753 0.38028562 1.1015768 4280687893
0.47647095 0.38028824 1.101469 4280622356
0.47879437 0.38029087 1.1013613 4280687892
0.48111781 0.38029349 1.1012535 4280688916
0.48344123 0.38029611 1.1011457 4280688916
0.48777616 0.38191113 1.1060818 4280688916
0.49172622 0.38320369 1.1100085 4280819477
0.49406701 0.38320631 1.1098999 4281016087
0.49640784 0.38320896 1.1097913 4281016089
0.49874863 0.38321161 1.1096827 4281082393
0.50108945 0.38321424 1.1095742 4281147161
0.50343025 0.38321689 1.1094656 4281212695
0.50410771 0.38192955 1.1053244 4281081878
0.50435203 0.38031968 1.100176 4281016855
0.50877386 0.38193479 1.105108 4281016345
0.51110697 0.38193741 1.1049998 4281081621
0.51344001 0.38194007 1.1048915 4281081874
0.51577312 0.38194269 1.1047833 4281148434
0.51810616 0.38194531 1.1046752 4281082642
0.52043927 0.38194796 1.1045669 4281082645
0.52630877 0.38459519 1.1127197 4281147928
0.52865773 0.38459784 1.1126107 4281279000
0.53100663 0.38460046 1.1125017 4281343768
0.53335553 0.38460311 1.1123928 4281409308
0.53570443 0.38460577 1.1122838 4281212960
0.53981704 0.3858985 1.1162027 4281016864
0.54217368 0.38590115 1.1160935 4280951841
0.54453033 0.38590381 1.1159842 4280887068
0.54912055 0.38751909 1.1209084 4281017624
0.54924357 0.38590911 1.1157656 4281214228
0.55160022 0.38591179 1.1156563 4281016848
0.55395693 0.38591444 1.1155469 4280885518
0.55631351 0.3859171 1.1154376 4281213452
0.55867016 0.38591975 1.1153283 4281476367
0.56102681 0.3859224 1.115219 4281278483
0.56154251 0.38463491 1.1110855 4281081372
0.56574005 0.38592774 1.1150005 4281015846
0.5680967 0.38593039 1.1148912 4280950301
0.57045329 0.38593304 1.1147819 4280884757
0.57280999 0.38593569 1.1146725 4280753687
0.57328707 0.38464814 1.1105407 4280622362
0.57752323 0.385941 1.1144539 4280425751
0.57987982 0.38594368 1.1143446 4280622356
0.58223653 0.38594633 1.1142353 4280819223
0.58459318 0.38594899 1.1141261 4280621850
0.58694983 0.38595164 1.1140168 4280424482
-1.5704319 0.90598589 2.8982382 4284436816
-1.5649092 0.90599215 2.8979821 4284960077
-1.5856957 0.92139727 2.9484613 4284107338
-1.58008 0.92140359 2.9482009 4283321677
-1.5744641 0.9214099 2.9479403 4284043601
-1.5688484 0.92141628 2.94768 4284830039
-1.5632325 0.9214226 2.9474194 4284567645
-1.1196841 0.6629039 2.0955696 4284306008
-1.1225511 0.66706187 2.1090572 4284240983
-1.1392641 0.67959064 2.1501019 4284241237
-1.13511 0.67959535 2.1499093 4284241235
-1.1309558 0.6796 2.1497166 4284175698
-1.1268018 0.67960471 2.149524 4284110418
-1.1158532 0.67545581 2.1356614 4283914323
-1.1117243 0.67546052 2.1354699 4283775795
-1.1075952 0.67546517 2.1352785 4281536531
-1.1101856 0.67962343 2.1487534 4279307279
-1.1060315 0.67962813 2.1485605 4279045132
-1.1018777 0.67963278 2.1483679 4278847757
-1.1044698 0.68385512 2.1620483 4278782222
-1.1002902 0.68385983 2.1618545 4278716178
-1.0961108 0.68386453 2.1616607 4278847254
-1.0919311 0.6838693 2.1614668 4278978578
-1.0877516 0.68387401 2.161273 4279175439
-1.090592 0.68835205 2.1757867 4279372048
-1.0999717 0.69704801 2.2041638 4279306770
-1.1026784 0.70152622 2.2186713 4279306518
-1.0983922 0.70153105 2.2184725 4279568665
-1.0941062 0.70153588 2.2182736 4279831062
-1.08982 0.70154071 2.2180748 4279568916
-1.0928816 0.70633864 2.2336261 4279372308
-1.1028131 0.71567416 2.2640834 4279175956
-1.0984417 0.71567911 2.2638805 4279044887
-1.1009438 0.72022164 2.2785842 4279045146
-1.0965449 0.72022659 2.2783802 4279109913
-1.0853273 0.71569389 2.2632723 4279372056
-1.0809557 0.71569884 2.2630696 4279634200
-1.0833482 0.72024149 2.2777681 4279306520
-1.0789493 0.72024643 2.277564 4279044371
-1.0745504 0.72025138 2.2773602 4279045135
-1.0772092 0.72504973 2.2928925 4279110160
-1.0727814 0.72505468 2.2926872 4279175185
-1.0683535 0.72505969 2.2924819 4279306256
-1.0784254 0.73503518 2.325 4279175183
-1.0739373 0.73504025 2.3247919 4279109393
-1.0694492 0.73504531 2.3245838 4279109394
-1.0718452 0.73984402 2.3401043 4279109393
-1.0673282 0.73984915 2.3398948 4279109392
-1.062811 0.73985422 2.3396852 4279109391
-1.0582939 0.73985934 2.3394759 4279109390
-1.0759767 0.755588 2.3908384 4279108880
-1.0786431 0.76077038 2.4076037 4278913298
-1.0739998 0.76077563 2.4073884 4278781459
-1.0621406 0.75560355 2.3901966 4278912789
-1.064713 0.76078612 2.4069579 4279109393
-1.0600696 0.76079136 2.4067423 4279043854
-1.0629001 0.76622981 2.4243376 4279043347
-1.0582237 0.76623505 2.4241209 4279043353
-1.0610429 0.77173746 2.4419208 4279043347
-1.0563334 0.77174276 2.4417024 4278912781
-1.0589664 0.77718133 2.4592884 4278781711
-1.0542241 0.77718669 2.4590683 4278913298
-1.049482 0.77719206 2.4588485 4279109395
-1.0447397 0.77719742 2.4586284 4279501845
-1.0399975 0.77720273 2.4584086 4279895577
-1.042518 0.78270549 2.4761946 4280485661
-1.0377425 0.78271085 2.4759731 4281143847
-1.0329671 0.78271627 2.4757516 4281933874
-1.0281916 0.78272164 2.4755301 4282722100
-1.0308776 0.78848028 2.4941459 4283184694
-1.0260674 0.78848571 2.4939227 4283647038
-1.0212572 0.78849113 2.4936996 4283912775
-1.0164469 0.78849655 2.4934764 4284239947
-1.0043144 0.78274858 2.4744227 4284633166
-0.9995389 0.78275394 2.4742012 4285026896
-1.2106594 0.95402139 3.0344117 4284764754
-1.1943429 0.94565338 3.0067401 4284568149
-1.1885833 0.94565982 3.0064728 4284699224
-1.1728157 0.93761134 2.9798541 4284830299
-1.167105 0.93761778 2.9795892 4284765535
-1.1613939 0.93762422 2.9793243 4284699740
-1.1556832 0.93763065 2.9790595 4284961881
-1.1499722 0.93763709 2.9787948 4285289560
-1.1442614 0.93764353 2.9785299 4285027672
-1.1385505 0.93764997 2.978265 4284831319
-1.1328397 0.9376564 2.9780002 4284897111
-1.1271288 0.93766284 2.9777353 4284963162
-1.121418 0.93766928 2.9774704 4285029213
-1.1157072 0.93767571 2.9772055 4285094494
-1.1099963 0.93768215 2.9769406 4285029983
-1.1042855 0.93768859 2.9766757 4285029984
-1.0985746 0.93769503 2.9764109 4285095521
-1.0928637 0.93770146 2.976146 4285226592
-1.087153 0.9377079 2.9758811 4285292127
-1.081442 0.93771434 2.9756162 4285358172
-1.0757313 0.93772078 2.9753513 4285489498
-1.0609605 0.92973524 2.9489841 4285685345
-1.055298 0.92974162 2.9487214 4285554280
-1.0496354 0.929748 2.9484589 4285488995
-1.0439728 0.92975438 2.9481962 4285686622
-1.0383103 0.92976075 2.9479337 4285882976
-0.89464694 0.81827444 2.5829539 4278781709
-0.89621305 0.82435459 2.602545 4279044882
-0.89118731 0.82436025 2.6023118 4279373073
-0.88616163 0.82436591 2.6020789 4279374352
-0.88113594 0.82437158 2.6018457 4279373077
-0.8761102 0.82437724 2.6016126 4279438362
-0.87108445 0.8243829 2.6013796 4279569693
-0.99275988 0.94588065 2.9973905 4279307808
-0.97864676 0.93783027 2.9708486 4279043866
-0.97293597 0.93783671 2.9705837 4281207060
-0.96722507 0.93784314 2.9703188 4283381567
-0.95337176 0.92985654 2.943994 4284573034
-0.94770908 0.92986292 2.9437315 4285816930
-0.94204652 0.92986929 2.9434688 4285554266
-0.93638396 0.92987567 2.9432061 4285292125
-0.9307214 0.92988211 2.9429436 4285292640
-0.9250589 0.92988849 2.9426808 4285292640
-0.91939622 0.92989486 2.9424183 4285358433
-0.91373366 0.92990124 2.9421556 4285489509
-0.9080711 0.92990762 2.9418931 4285555305
-0.90240854 0.929914 2.9416304 4285620839
-0.90440583 0.93791401 2.9674053 4285686629
-0.89869493 0.93792045 2.9671404 4285752165
-0.89298403 0.93792689 2.9668756 4285883494
-0.88727313 0.93793333 2.9666107 4286080103
-0.87409568 0.92994595 2.9403172 4286014568
-0.868433 0.92995232 2.9400547 4285949030
-0.87014055 0.93795264 2.965816 4286014565
-0.86442977 0.93795907 2.9655511 4286080617
-0.85144538 0.92997146 2.9392667 4286081390
-0.84578282 0.92997783 2.9390039 4286146416
-0.8401202 0.92998427 2.9387414 4286080627
-0.8344577 0.92999065 2.9384787 4286080874
-0.83587551 0.93799126 2.9642267 4286081378
-0.83016467 0.9379977 2.9639618 4286147174
-0.82445389 0.93800414 2.963697 4286147947
-0.81874305 0.93801057 2.9634321 4286147441
-0.80614477 0.93002254 2.9371657 4286147447
-0.80048221 0.93002892 2.936903 4286212979
-0.79481965 0.93003535 2.9366403 4286343535
-0.78915703 0.93004173 2.9363778 4286540145
-0.78349447 0.93004811 2.936115 4286409331
-0.77783185 0.93005449 2.9358525 4286278512
-0.76578283 0.9223218 2.9104333 4286279022
-0.760167 0.92232817 2.9101729 4286279025
-0.75455111 0.92233449 2.9099123 4286345077
-0.75518161 0.93008 2.9348018 4286410351
-0.74951905 0.93008643 2.9345393 4286475625
-0.74385649 0.93009281 2.9342766 4286541164
-0.73208773 0.92235982 2.9088707 4286475888
-0.73253131 0.93010557 2.9337513 4286410611
-0.72686881 0.93011194 2.9334888 4286476407
-0.71524024 0.92237884 2.9080892 4286541939
-0.71554363 0.9301247 2.9329636 4286476399
-0.70988107 0.93013114 2.9327009 4286411115
-0.70421845 0.93013752 2.9324381 4286411368
-0.69855589 0.93014389 2.9321756 4286476652
-0.69289327 0.93015027 2.9319129 4286542191
-0.68723071 0.93015665 2.9316504 4286607986
-0.68156815 0.93016303 2.9313877 4286738550
-0.67590564 0.9301694 2.9311252 4286935155
-0.67024302 0.93017578 2.9308624 4286738545
-0.66458046 0.93018222 2.9305997 4286607731
-0.65891784 0.9301886 2.9303372 4286607990
-0.65325534 0.93019497 2.9300745 4286607481
-0.64759272 0.93020135 2.929812 4286541437
-0.64193016 0.93020773 2.9295492 4286541689
-0.63626754 0.93021411 2.9292867 4286541686
-0.63060504 0.93022048 2.929024 4286607475
-0.62494242 0.93022686 2.9287615 4286476657
-0.61927992 0.9302333 2.9284987 4286411892
-0.6136173 0.93023968 2.928236 4286608502
-0.60795474 0.93024606 2.9279735 4286870391
-0.60229212 0.93025243 2.9277108 4286935416
-0.59662956 0.93025881 2.9274483 4287000691
-0.590967 0.93026519 2.9271855 4286869357
-0.58530444 0.93027157 2.926923 4286738802
-0.58459812 0.93827462 2.9525723 4286739063
-0.57397926 0.93028438 2.9263976 4286739321
-0.5683167 0.93029076 2.9261351 4286738810
-0.56265414 0.93029714 2.9258723 4286739314
-0.55699158 0.93030351 2.9256098 4286477931
-0.54676497 0.9225688 2.9002752 4286215539
-0.54114914 0.92257512 2.9000149 4286412155
-0.53553325 0.92258143 2.8997543 4286607993
-0.52553016 0.91491044 2.8746357 4286607990
-0.52430159 0.92259413 2.8992333 4286673270
-0.5186857 0.92260045 2.898973 4286673014
-0.51306987 0.92260677 2.8987124 4286738552
-0.50325215 0.91493553 2.8736024 4286738553
-0.50183821 0.92261946 2.8981915 4286738549
-0.49622244 0.92262578 2.8979311 4286673266
-0.48654369 0.91495436 2.8728273 4286672757
-0.48499069 0.92263848 2.8974102 4286738297
-0.47540471 0.91496694 2.8723109 4286804082
-0.46983522 0.91497326 2.8720524 4286738027
-0.46426567 0.91497952 2.8717942 4286738541
-0.45869625 0.91498578 2.8715358 4286607727
-0.45691144 0.92267013 2.8961077 4286476654
-0.45129564 0.92267644 2.8958473 4286411118
-0.44567984 0.92268276 2.895587 4286410859
-0.44374004 0.93043125 2.9203572 4286345064
-0.43444809 0.92269546 2.895066 4286344293
-0.42883229 0.92270178 2.8948054 4286147171
-0.42321643 0.92270809 2.8945451 4285950569
-0.41760054 0.92271447 2.8942845 4286082415
-0.40857068 0.91504234 2.869211 4286213486
-0.40300125 0.9150486 2.8689528 4286279021
-0.39743176 0.91505486 2.8686943 4286344044
-0.39186221 0.91506118 2.8684361 4286409578
-0.38629273 0.91506743 2.8681777 4286475115
-0.38072324 0.91507369 2.8679194 4286475115
-0.37515375 0.91508001 2.867661 4286540139
-0.3695842 0.91508627 2.8674028 4286409067
-0.36401477 0.91509253 2.8671443 4286277741
-0.35844523 0.91509885 2.8668861 4286146670
-0.35287574 0.9151051 2.8666279 4286081129
-0.35021049 0.92279041 2.8911591 4286343523
-0.34459463 0.92279679 2.8908985 4286671196
-0.34181377 0.93054616 2.9156296 4286343765
-0.34193507 0.94661456 2.967205 4286016085
-0.34211174 0.96338731 3.0210431 4284894805
-0.33925766 0.97203296 3.0486472 4283844683
-0.33940685 0.98976588 3.1055655 4283516994
-0.33942813 1.0077549 3.1632998 4283254848
-0.3460305 1.0463507 3.2874966 4283582527
-0.33966932 1.046358 3.2872014 4283910464
-0.33985749 1.0669717 3.3533671 4283912769
-0.33337194 1.0669789 3.3530664 4283912506
-0.3300367 1.0772897 3.3859904 4283446067
-0.32348898 1.0772971 3.3856866 4283051813
-0.31694123 1.0773045 3.3853829 4283051799
-0.31039345 1.0773119 3.3850791 4283052573
-0.3038457 1.0773193 3.3847756 4283315746
-0.29729792 1.0773267 3.3844719 4283642658
-0.17426571 0.66012883 2.0393932 4283117343
-0.16914809 0.65590948 2.0255957 4283117341
-0.1651435 0.65591395 2.0254099 4283117343
-0.16113892 0.65591848 2.0252242 4283182882
-0.15621519 0.65208292 2.0126684 4283249446
-0.15223376 0.65208739 2.0124838 4283512363
-0.14825237 0.65209186 2.0122991 4283840047
-0.14427093 0.65209639 2.0121145 4284036659
-0.13946305 0.64826071 1.9995641 4284234036
-0.13550481 0.64826518 1.9993805 4284431412
-0.13154659 0.64826959 1.9991969 4284628281
-0.12758835 0.64827406 1.9990132 4284825917
-0.1236301 0.64827853 1.9988296 4285089343
-0.11967185 0.648283 1.998646 4285353025
-0.11571363 0.64828748 1.9984624 4285615938
-0.11175538 0.64829195 1.9982789 4285878851
-0.10779713 0.64829642 1.9980953 4286208071
-0.1032107 0.64439642 1.9853499 4286536011
-0.099276006 0.64440084 1.9851674 4286929227
-0.095922418 0.64830977 1.9975445 4287195211
-0.091964185 0.64831424 1.9973609 4287521359
-0.08800593 0.64831871 1.9971774 4287586644
-0.084047697 0.64832318 1.9969938 4287652179
-0.080089472 0.64832765 1.9968102 4287586643
-0.076586932 0.65217268 2.0089753 4287586642
-0.072605513 0.65217716 2.0087905 4287455569
-0.068624102 0.65218168 2.008606 4287324499
-0.064642683 0.65218616 2.0084212 4287128916
-0.060661279 0.65219063 2.0082366 4286996566
-0.060378477 0.693995 2.1423867 4286668631
-0.056144856 0.69399977 2.1421905 4286405976
-0.052234113 0.69822943 2.1555691 4286011481
-0.047975026 0.69823426 2.1553717 4285683546
-0.04371592 0.69823909 2.155174 4285158748
-0.039456818 0.69824386 2.1549766 4284632924
-0.035197716 0.69824868 2.154779 4283975517
-0.030938627 0.69825345 2.1545815 4283384668
-0.02667954 0.69825828 2.1543839 4283121243
-0.02227602 0.69403797 2.1406195 4282925656
-0.018042415 0.69404274 2.1404231 4282598740
-0.013709704 0.68956637 2.1258402 4282336337
-0.0095031308 0.68957114 2.1256452 4282729037
-0.0052515296 0.68509465 2.1110661 4283188822
-0.0010719878 0.68509936 2.1108723 4283189599
0.0031075391 0.68510407 2.1106784 4283256165
0.0072870809 0.68510878 2.1104846 4283388012
0.011466615 0.68511349 2.1102908 4283585904
0.030897021 0.38456857 1.14477 4284172118
0.033134568 0.38297066 1.1395298 4283184966
0.035491206 0.38297331 1.1394205 4282200628
0.037847843 0.38297597 1.1393112 4281741091
0.040078316 0.38169813 1.1350987 4281277983
0.042427227 0.38170078 1.1349897 4280029979
0.044917755 0.38298395 1.1389834 4278848534
0.047125056 0.38170609 1.1347719 4279110673
0.049473971 0.38170874 1.134663 4279372818
0.051822882 0.38171139 1.134554 4279306515
0.054344308 0.38299459 1.1385461 4279306768
0.056520712 0.38171667 1.1343361 4279372813
0.059057582 0.3829999 1.1383275 4279503374
0.061013069 0.38037732 1.1298132 4279372560
0.063353874 0.38037997 1.1297046 4279307027
0.065916367 0.38172728 1.1339003 4279307286
0.067816615 0.37910464 1.1253884 4279306513
0.070149697 0.3791073 1.1252803 4279306508
0.07248278 0.37910992 1.125172 4279306511
0.075057887 0.38039318 1.1291617 4279306771
0.077660933 0.38174051 1.1333556 4279306515
0.080009848 0.38174316 1.1332467 4279240978
0.082358763 0.38174582 1.1331377 4279175442
0.084707677 0.38174847 1.1330287 4279044881
0.087056592 0.38175112 1.1329198 4278913299
0.089405499 0.38175377 1.132811 4278978580
0.091754422 0.3817564 1.132702 4279109644
0.093784317 0.38041428 1.1282933 4278978821
0.096452244 0.3817617 1.1324841 4278913544
0.098465927 0.38041955 1.1280761 4278913803
0.10047972 0.37914148 1.1238735 4278913803
0.10314753 0.38042483 1.127859 4278848267
0.10548834 0.38042748 1.1277504 4278848010
0.10747896 0.37914938 1.1235489 4278848010
0.10981204 0.379152 1.1234406 4278847754
0.11214512 0.37915462 1.1233325 4278848010
0.1144782 0.37915727 1.1232243 4278847756
0.11633495 0.37755886 1.1180017 4278913039
0.11865837 0.37756148 1.1178939 4279043853
0.1209818 0.3775641 1.1177862 4278912780
0.12330522 0.37756673 1.1176784 4278847756
0.12562864 0.37756935 1.1175706 4278848013
0.12847668 0.37917304 1.1225749 4278848010
0.13080975 0.37917569 1.1224668 4278848007
0.13314283 0.37917832 1.1223586 4278847497
0.1354759 0.37918094 1.1222503 4278847756
0.13780899 0.37918359 1.1221422 4278847502
0.14014207 0.37918621 1.122034 4278781969
0.14189261 0.37758768 1.1168163 4278781966
0.14421603 0.3775903 1.1167085 4278650891
0.14653946 0.37759292 1.1166008 4278519562
0.14886288 0.37759554 1.116493 4278715401
0.1511863 0.37759817 1.1163853 4278978055
0.15350974 0.37760079 1.1162776 4278847238
0.15532078 0.37632248 1.1120844 4278781704
0.15763649 0.37632507 1.111977 4278715914
0.15995219 0.37632769 1.1118697 4278650633
0.16226789 0.37633032 1.1117623 4278519816
0.16458358 0.37633291 1.1116549 4278454026
0.16689928 0.37633553 1.1115475 4278715661
0.16921499 0.37633812 1.1114401 4278977807
0.17153068 0.37634075 1.1113327 4278977810
0.17384638 0.37634337 1.1112252 4278977807
0.17616209 0.37634596 1.1111178 4278780940
0.17847778 0.37634858 1.1110104 4278650126
0.18079349 0.37635121 1.110903 4278584592
0.18371424 0.37763485 1.1148766 4278584587
0.18603766 0.37763748 1.1147689 4278584838
0.18836109 0.3776401 1.1146611 4278650373
0.19068453 0.37764269 1.1145533 4278584835
0.19300793 0.37764531 1.1144456 4278584837
0.19468768 0.37636685 1.1102586 4278715911
0.19635196 0.37508839 1.1060722 4278912520
0.19865996 0.37509099 1.1059651 4278781705
0.20096792 0.37509358 1.1058581 4278716168
0.20327589 0.3750962 1.105751 4278716424
0.20558387 0.37509879 1.105644 4278716165
0.20789185 0.37510139 1.1055369 4278650627
0.21019983 0.37510401 1.1054299 4278650628
0.2125078 0.3751066 1.1053228 4278585094
0.21481577 0.3751092 1.1052158 4278584582
0.21712376 0.37511182 1.1051087 4278584581
0.21943171 0.37511441 1.1050017 4278584325
0.22173969 0.375117 1.1048948 4278584837
0.22479178 0.3764008 1.1088624 4278584580
0.22635564 0.37512222 1.1046807 4278519043
0.22866362 0.37512481 1.1045736 4278519043
0.23173888 0.37640864 1.1085402 4278519554
0.23405458 0.37641126 1.1084328 4278519043
0.23637028 0.37641385 1.1083254 4278519044
0.23789552 0.37513524 1.1041454 4278518791
0.2402035 0.37513784 1.1040384 4278649610
0.24170558 0.37385917 1.0998596 4278780679
0.24400584 0.37386176 1.0997529 4278715140
0.24630609 0.37386435 1.0996462 4278649603
0.24860634 0.37386695 1.0995395 4278518786
0.25090659 0.37386954 1.0994328 4278387460
0.25320685 0.37387213 1.0993261 4278518278
0.25550708 0.37387472 1.0992194 4278649605
0.25780734 0.37387732 1.0991127 4278649604
0.26010761 0.37387991 1.0990061 4278649604
0.26240784 0.3738825 1.0988994 4278584068
0.2647081 0.3738851 1.0987927 4278518534
0.26789922 0.37516907 1.1027538 4278518792
0.2693086 0.37389031 1.0985793 4278584326
0.27160886 0.3738929 1.0984727 4278518789
0.27390912 0.3738955 1.098366 4278453252
0.27620938 0.37389809 1.0982593 4278453251
0.27850962 0.37390068 1.0981526 4278453251
0.28174707 0.37518468 1.1021116 4278519043
0.28311014 0.37390587 1.0979393 4278650116
0.28541037 0.37390846 1.0978326 4278978308
0.28771064 0.37391105 1.0977259 4279372550
0.2900109 0.37391365 1.0976192 4279635208
0.29231113 0.37391624 1.0975125 4279897099
0.29461139 0.37391883 1.0974058 4280093710
0.29691166 0.37392142 1.0972991 4280290318
0.29921189 0.37392402 1.0971924 4280093966
0.30151212 0.37392661 1.0970857 4279897103
0.30381238 0.3739292 1.096979 4280159249
0.30611262 0.3739318 1.0968723 4280421392
0.30841291 0.37393439 1.0967656 4280487183
0.31071314 0.37393698 1.0966589 4280552466
0.3130134 0.37393957 1.0965523 4280486932
0.31531364 0.37394217 1.0964456 4280487447
0.3176139 0.37394476 1.0963389 4280422425
0.3188456 0.37266573 1.0921726 4280423191
0.32113814 0.37266833 1.0920663 4280554774
0.32343066 0.37267092 1.09196 4280686102
0.32572317 0.37267351 1.0918536 4280686359
0.32911515 0.37395772 1.0958055 4280751895
0.33141541 0.37396035 1.0956988 4280751896
0.33371568 0.37396294 1.0955921 4280751894
0.33601591 0.37396553 1.0954854 4280817685
0.33831617 0.37396812 1.0953788 4280949526
0.34175444 0.37525234 1.0993284 4280950040
0.34291667 0.37397331 1.0951654 4281016086
0.3452169 0.3739759 1.0950587 4280951317
0.34751719 0.3739785 1.094952 4280886040
0.34981743 0.37398109 1.0948453 4280952346
0.35211769 0.37398368 1.0947386 4281016860
0.35441792 0.37398627 1.0946319 4280950814
0.35671818 0.37398887 1.0945252 4280951070
0.36021826 0.37527317 1.098472 4281082397
0.36252618 0.37527576 1.0983649 4281279006
0.36483419 0.37527838 1.0982579 4281147935
0.36836517 0.37656271 1.1022034 4281017377
0.36945015 0.37528357 1.0980438 4281149219
0.3717581 0.37528619 1.0979367 4281280805
0.37406608 0.37528878 1.0978297 4281281575
0.37762797 0.37657315 1.1017737 4281280802
0.37868205 0.375294 1.0976156 4281345822
0.38099 0.37529659 1.0975085 4281476897
0.38457504 0.37658098 1.1014515 4281411619
0.38689077 0.37658361 1.1013441 4281411620
0.38920647 0.3765862 1.1012367 4281411877
0.3915222 0.37658882 1.1011293 4281476638
0.3951458 0.37787327 1.1050704 4281279767
0.39746925 0.37787589 1.1049626 4281081110
0.39846927 0.37659666 1.1008071 4280883478
0.40211612 0.37788111 1.1047471 4280751892
0.40443951 0.37788373 1.1046393 4280489745
0.40676293 0.37788635 1.1045315 4280292880
0.40908635 0.37788898 1.1044238 4280423950
0.41140977 0.3778916 1.104316 4280620559
0.41373321 0.37789422 1.1042082 4280686353
0.41605663 0.37789685 1.1041005 4280817681
0.41699484 0.37661755 1.0999478 4280752658
0.41931057 0.37662014 1.0998405 4280752402
0.42302692 0.37790471 1.1037772 4280752402
0.42535034 0.37790734 1.1036694 4280751892
0.42625767 0.37662798 1.0995183 4280685846
0.42857334 0.3766306 1.0994109 4280620568
0.43088907 0.3766332 1.0993035 4280686363
0.43320477 0.37663582 1.0991961 4280752152
0.4355205 0.37663844 1.0990887 4280817941
0.43783617 0.37664104 1.0989813 4280883732
0.4416143 0.37792566 1.102915 4280883731
0.44393772 0.37792829 1.1028073 4280950035
0.44626117 0.37793091 1.1026995 4280820243
0.44709897 0.3766515 1.0985516 4280754455
0.45090801 0.37793615 1.102484 4280885531
0.45323142 0.37793878 1.1023762 4281016091
0.45744085 0.37954402 1.1073174 4281015836
0.4597739 0.37954664 1.1072092 4281081370
0.46210697 0.37954926 1.1071011 4280885017
0.46444008 0.37955189 1.1069928 4280754200
0.46677315 0.37955454 1.1068846 4280885526
0.46910623 0.37955716 1.1067764 4281081886
0.4714393 0.37955979 1.1066682 4281081639
0.4718188 0.37795973 1.1015142 4281081633
0.47414222 0.37796235 1.1014065 4281015835
0.47646564 0.37796497 1.1012987 4281015833
0.47878909 0.3779676 1.1011909 4281015831
0.48111254 0.37797019 1.1010832 4281081623
0.48543778 0.37957558 1.1060189 4281081624
0.48777086 0.3795782 1.1059108 4281082138
0.49172089 0.38086301 1.1098367 4281147932
0.49576756 0.38221198 1.1139636 4281279006
0.49811649 0.38221464 1.1138546 4281344800
0.50046539 0.38221729 1.1137457 4281409569
0.50281429 0.38221994 1.1136369 4281409314
0.50516319 0.38222259 1.1135279 4281475356
0.50751215 0.38222525 1.1134189 4281344534
0.50986105 0.38222787 1.11331 4281213463
0.51220995 0.38223052 1.113201 4281213720
0.51455885 0.38223317 1.1130921 4281213721
0.51512891 0.38088942 1.1087511 4281214234
0.5174697 0.38089204 1.1086425 4281279513
0.5198105 0.38089469 1.108534 4281279513
0.52395451 0.38224378 1.1126564 4281279518
0.52802849 0.38352874 1.1165764 4281345060
0.53038514 0.38353139 1.1164671 4281475872
0.53274179 0.38353404 1.1163578 4281606685
0.53509837 0.3835367 1.1162485 4281738014
0.53745502 0.38353935 1.1161392 4281411360
0.54201627 0.38514495 1.1210641 4281148707
0.54438257 0.3851476 1.1209543 4281149991
0.54674888 0.38515028 1.1208446 4281149215
0.54911518 0.38515294 1.1207348 4281346072
0.5492382 0.38355264 1.1155927 4281542172
0.55159485 0.38355529 1.1154834 4281214752
0.55395156 0.38355795 1.1153741 4280952091
0.55630815 0.38356063 1.1152648 4281476631
0.5586648 0.38356328 1.1151555 4282065686
0.56102145 0.38356593 1.1150461 4281541142
0.56153721 0.38228616 1.1109132 4281082394
0.56573474 0.38357124 1.1148276 4280885790
0.56809133 0.38357389 1.1147183 4280753945
0.57044792 0.38357657 1.114609 4280754196
0.57280463 0.38357922 1.1144997 4280754197
0.57516122 0.38358188 1.1143904 4280557590
0.57751787 0.38358453 1.1142811 4280359957
0.57987446 0.38358718 1.1141717 4280359957
0.58032846 0.38230735 1.1100416 4280424982
0.58267736 0.38231 1.1099327 4280359191
0.58694446 0.38359517 1.1138439 4280293661
-1.5969403 0.9157691 2.9485705 4283977807
-1.5913244 0.91577542 2.9483099 4284502095
-1.5857085 0.91578174 2.9480495 4284043088
-1.5800928 0.91578805 2.947789 4283649872
-1.574477 0.91579443 2.9475286 4283977552
-1.5688611 0.91580075 2.947268 4284371289
-1.5632453 0.91580707 2.9470077 4284371298
-1.1225603 0.66298378 2.108758 4284372054
-1.1254832 0.66718024 2.122452 4284372053
-1.1213794 0.66718489 2.1222615 4284306517
-1.1241204 0.67131788 2.1357417 4284240981
-1.1199914 0.67132258 2.13555 4284241494
-1.1158625 0.67132723 2.1353586 4284176216
-1.1117337 0.67133188 2.1351671 4284176185
-1.1076046 0.67133653 2.1349757 4282264090
-1.1034757 0.67134118 2.1347842 4280355351
-1.1060411 0.67547435 2.1482558 4279765524
-1.1018871 0.67547905 2.1480632 4279241489
-1.1044793 0.67967588 2.1617417 4279044367
-1.1002997 0.67968059 2.1615479 4278847250
-1.0961202 0.67968529 2.1613541 4278912534
-1.0919406 0.67969 2.1611602 4278978068
-1.0877612 0.67969471 2.1609664 4279109394
-1.0906017 0.68414575 2.175478 4279240721
-1.0999813 0.69278914 2.2038515 4279240465
-1.0957222 0.69279391 2.2036538 4279174929
-1.098402 0.69724518 2.218158 4279371794
-1.094116 0.69725001 2.2179592 4279568912
-1.0898297 0.69725484 2.2177606 4279372558
-1.0855436 0.69725966 2.2175617 4279241742
-1.0885763 0.70202875 2.2331095 4279176206
-1.0984516 0.71130782 2.2635601 4279045396
-1.0868195 0.70654857 2.2476134 4279110426
-1.0965549 0.71582794 2.2780576 4279175450
-1.0853372 0.71132261 2.2629516 4279437594
-1.0809658 0.71132755 2.262749 4279699737
-1.0981241 0.72568917 2.3099716 4279371801
-1.0936654 0.72569424 2.3097649 4279109394
-1.0892067 0.72569925 2.3095582 4279044620
-1.0918999 0.73053223 2.3252954 4279044620
-1.0802892 0.72570932 2.3091445 4278978828
-1.0758303 0.72571433 2.3089378 4278913293
-1.0713716 0.72571939 2.3087308 4278978318
-1.0739475 0.73055249 2.3244629 4279043599
-1.0694594 0.73055756 2.3242548 4279043856
-1.0718554 0.73532724 2.3397729 4279044112
-1.0673385 0.73533231 2.3395636 4279043856
-1.0701938 0.74048334 2.3563356 4279043855
-1.0656453 0.74048847 2.3561246 4279043342
-1.061097 0.7404936 2.3559139 4279043345
-1.0786537 0.7561273 2.4072633 4279043349
-1.066763 0.75098658 2.3900723 4279108888
-1.0621511 0.75099182 2.3898582 4279109403
-1.0647235 0.75614297 2.4066172 4279109140
-1.0600801 0.75614822 2.4064019 4279108878
-1.0554367 0.75615346 2.4061863 4279174421
-1.0582345 0.76155913 2.4237778 4279108893
-1.0610536 0.76702833 2.4415755 4278977812
-1.0563442 0.76703364 2.4413569 4278912267
-1.0589771 0.77243936 2.4589405 4278846480
